ply
format ascii 1.0
comment : MagicaVoxel @ Ephtracy
element vertex 735
property float x
property float y
property float z
property uchar red
property uchar green
property uchar blue
end_header
-7 -3 0 85 85 85
-6 -3 0 85 85 85
-5 -3 0 85 85 85
-4 -3 0 85 85 85
-3 -3 0 85 85 85
-2 -3 0 85 85 85
-1 -3 0 85 85 85
0 -3 0 85 85 85
1 -3 0 85 85 85
2 -3 0 85 85 85
3 -3 0 85 85 85
4 -3 0 85 85 85
5 -3 0 85 85 85
6 -3 0 85 85 85
7 -3 0 85 85 85
-7 -2 0 85 85 85
-6 -2 0 85 85 85
-5 -2 0 85 85 85
-4 -2 0 85 85 85
-3 -2 0 85 85 85
-2 -2 0 85 85 85
-1 -2 0 85 85 85
0 -2 0 85 85 85
1 -2 0 85 85 85
2 -2 0 85 85 85
3 -2 0 85 85 85
4 -2 0 85 85 85
5 -2 0 85 85 85
6 -2 0 85 85 85
7 -2 0 85 85 85
-7 -1 0 85 85 85
-6 -1 0 85 85 85
-5 -1 0 85 85 85
-4 -1 0 85 85 85
-3 -1 0 85 85 85
-2 -1 0 85 85 85
-1 -1 0 85 85 85
0 -1 0 85 85 85
1 -1 0 85 85 85
2 -1 0 85 85 85
3 -1 0 85 85 85
4 -1 0 85 85 85
5 -1 0 85 85 85
6 -1 0 85 85 85
7 -1 0 85 85 85
-7 0 0 85 85 85
-6 0 0 85 85 85
-5 0 0 85 85 85
-4 0 0 85 85 85
-3 0 0 85 85 85
-2 0 0 85 85 85
-1 0 0 85 85 85
0 0 0 85 85 85
1 0 0 85 85 85
2 0 0 85 85 85
3 0 0 85 85 85
4 0 0 85 85 85
5 0 0 85 85 85
6 0 0 85 85 85
7 0 0 85 85 85
-7 1 0 85 85 85
-6 1 0 85 85 85
-5 1 0 85 85 85
-4 1 0 85 85 85
-3 1 0 85 85 85
-2 1 0 85 85 85
-1 1 0 85 85 85
0 1 0 85 85 85
1 1 0 85 85 85
2 1 0 85 85 85
3 1 0 85 85 85
4 1 0 85 85 85
5 1 0 85 85 85
6 1 0 85 85 85
7 1 0 85 85 85
-7 2 0 85 85 85
-6 2 0 85 85 85
-5 2 0 85 85 85
-4 2 0 85 85 85
-3 2 0 85 85 85
-2 2 0 85 85 85
-1 2 0 85 85 85
0 2 0 85 85 85
1 2 0 85 85 85
2 2 0 85 85 85
3 2 0 85 85 85
4 2 0 85 85 85
5 2 0 85 85 85
6 2 0 85 85 85
7 2 0 85 85 85
-7 3 0 85 85 85
-6 3 0 85 85 85
-5 3 0 85 85 85
-4 3 0 85 85 85
-3 3 0 85 85 85
-2 3 0 85 85 85
-1 3 0 85 85 85
0 3 0 85 85 85
1 3 0 85 85 85
2 3 0 85 85 85
3 3 0 85 85 85
4 3 0 85 85 85
5 3 0 85 85 85
6 3 0 85 85 85
7 3 0 85 85 85
-7 -2 1 85 85 85
-6 -2 1 85 85 85
-5 -2 1 85 85 85
-4 -2 1 85 85 85
-3 -2 1 85 85 85
-2 -2 1 85 85 85
-1 -2 1 85 85 85
0 -2 1 85 85 85
1 -2 1 85 85 85
2 -2 1 85 85 85
3 -2 1 85 85 85
4 -2 1 85 85 85
5 -2 1 85 85 85
6 -2 1 85 85 85
7 -2 1 85 85 85
-7 -1 1 85 85 85
-6 -1 1 85 85 85
-5 -1 1 85 85 85
-4 -1 1 85 85 85
-3 -1 1 85 85 85
-2 -1 1 85 85 85
-1 -1 1 85 85 85
0 -1 1 85 85 85
1 -1 1 85 85 85
2 -1 1 85 85 85
3 -1 1 85 85 85
4 -1 1 85 85 85
5 -1 1 85 85 85
6 -1 1 85 85 85
7 -1 1 85 85 85
-7 0 1 85 85 85
-6 0 1 85 85 85
-5 0 1 85 85 85
-4 0 1 85 85 85
-3 0 1 85 85 85
-2 0 1 85 85 85
-1 0 1 85 85 85
0 0 1 85 85 85
1 0 1 85 85 85
2 0 1 85 85 85
3 0 1 85 85 85
4 0 1 85 85 85
5 0 1 85 85 85
6 0 1 85 85 85
7 0 1 85 85 85
-7 1 1 85 85 85
-6 1 1 85 85 85
-5 1 1 85 85 85
-4 1 1 85 85 85
-3 1 1 85 85 85
-2 1 1 85 85 85
-1 1 1 85 85 85
0 1 1 85 85 85
1 1 1 85 85 85
2 1 1 85 85 85
3 1 1 85 85 85
4 1 1 85 85 85
5 1 1 85 85 85
6 1 1 85 85 85
7 1 1 85 85 85
-7 2 1 85 85 85
-6 2 1 85 85 85
-5 2 1 85 85 85
-4 2 1 85 85 85
-3 2 1 85 85 85
-2 2 1 85 85 85
-1 2 1 85 85 85
0 2 1 85 85 85
1 2 1 85 85 85
2 2 1 85 85 85
3 2 1 85 85 85
4 2 1 85 85 85
5 2 1 85 85 85
6 2 1 85 85 85
7 2 1 85 85 85
-7 -1 2 85 85 85
-6 -1 2 85 85 85
-5 -1 2 85 85 85
-4 -1 2 85 85 85
-3 -1 2 85 85 85
-2 -1 2 85 85 85
-1 -1 2 85 85 85
0 -1 2 85 85 85
1 -1 2 85 85 85
2 -1 2 85 85 85
3 -1 2 85 85 85
4 -1 2 85 85 85
5 -1 2 85 85 85
6 -1 2 85 85 85
7 -1 2 85 85 85
-7 0 2 85 85 85
-6 0 2 85 85 85
-5 0 2 85 85 85
-4 0 2 85 85 85
-3 0 2 85 85 85
-2 0 2 85 85 85
-1 0 2 85 85 85
0 0 2 85 85 85
1 0 2 85 85 85
2 0 2 85 85 85
3 0 2 85 85 85
4 0 2 85 85 85
5 0 2 85 85 85
6 0 2 85 85 85
7 0 2 85 85 85
-7 1 2 85 85 85
-6 1 2 85 85 85
-5 1 2 85 85 85
-4 1 2 85 85 85
-3 1 2 85 85 85
-2 1 2 85 85 85
-1 1 2 85 85 85
0 1 2 85 85 85
1 1 2 85 85 85
2 1 2 85 85 85
3 1 2 85 85 85
4 1 2 85 85 85
5 1 2 85 85 85
6 1 2 85 85 85
7 1 2 85 85 85
-7 -1 3 85 85 85
-6 -1 3 85 85 85
-5 -1 3 85 85 85
-4 -1 3 85 85 85
-3 -1 3 85 85 85
-2 -1 3 85 85 85
-1 -1 3 85 85 85
0 -1 3 85 85 85
1 -1 3 85 85 85
2 -1 3 85 85 85
3 -1 3 85 85 85
4 -1 3 85 85 85
5 -1 3 85 85 85
6 -1 3 85 85 85
7 -1 3 85 85 85
-7 0 3 85 85 85
-6 0 3 85 85 85
-5 0 3 85 85 85
-4 0 3 85 85 85
-3 0 3 85 85 85
-2 0 3 85 85 85
-1 0 3 85 85 85
0 0 3 85 85 85
1 0 3 85 85 85
2 0 3 85 85 85
3 0 3 85 85 85
4 0 3 85 85 85
5 0 3 85 85 85
6 0 3 85 85 85
7 0 3 85 85 85
-7 1 3 85 85 85
-6 1 3 85 85 85
-5 1 3 85 85 85
-4 1 3 85 85 85
-3 1 3 85 85 85
-2 1 3 85 85 85
-1 1 3 85 85 85
0 1 3 85 85 85
1 1 3 85 85 85
2 1 3 85 85 85
3 1 3 85 85 85
4 1 3 85 85 85
5 1 3 85 85 85
6 1 3 85 85 85
7 1 3 85 85 85
-7 -1 4 85 85 85
-6 -1 4 85 85 85
-5 -1 4 85 85 85
-4 -1 4 85 85 85
-3 -1 4 85 85 85
-2 -1 4 85 85 85
-1 -1 4 85 85 85
0 -1 4 85 85 85
1 -1 4 85 85 85
2 -1 4 85 85 85
3 -1 4 85 85 85
4 -1 4 85 85 85
5 -1 4 85 85 85
6 -1 4 85 85 85
7 -1 4 85 85 85
-7 0 4 85 85 85
-6 0 4 85 85 85
-5 0 4 85 85 85
-4 0 4 85 85 85
-3 0 4 85 85 85
-2 0 4 85 85 85
-1 0 4 85 85 85
0 0 4 85 85 85
1 0 4 85 85 85
2 0 4 85 85 85
3 0 4 85 85 85
4 0 4 85 85 85
5 0 4 85 85 85
6 0 4 85 85 85
7 0 4 85 85 85
-7 1 4 85 85 85
-6 1 4 85 85 85
-5 1 4 85 85 85
-4 1 4 85 85 85
-3 1 4 85 85 85
-2 1 4 85 85 85
-1 1 4 85 85 85
0 1 4 85 85 85
1 1 4 85 85 85
2 1 4 85 85 85
3 1 4 85 85 85
4 1 4 85 85 85
5 1 4 85 85 85
6 1 4 85 85 85
7 1 4 85 85 85
-7 -1 5 85 85 85
-6 -1 5 85 85 85
-5 -1 5 85 85 85
-4 -1 5 85 85 85
-3 -1 5 85 85 85
-2 -1 5 85 85 85
-1 -1 5 85 85 85
0 -1 5 85 85 85
1 -1 5 85 85 85
2 -1 5 85 85 85
3 -1 5 85 85 85
4 -1 5 85 85 85
5 -1 5 85 85 85
6 -1 5 85 85 85
7 -1 5 85 85 85
-7 0 5 85 85 85
-6 0 5 85 85 85
-5 0 5 85 85 85
-4 0 5 85 85 85
-3 0 5 85 85 85
-2 0 5 85 85 85
-1 0 5 85 85 85
0 0 5 85 85 85
1 0 5 85 85 85
2 0 5 85 85 85
3 0 5 85 85 85
4 0 5 85 85 85
5 0 5 85 85 85
6 0 5 85 85 85
7 0 5 85 85 85
-7 1 5 85 85 85
-6 1 5 85 85 85
-5 1 5 85 85 85
-4 1 5 85 85 85
-3 1 5 85 85 85
-2 1 5 85 85 85
-1 1 5 85 85 85
0 1 5 85 85 85
1 1 5 85 85 85
2 1 5 85 85 85
3 1 5 85 85 85
4 1 5 85 85 85
5 1 5 85 85 85
6 1 5 85 85 85
7 1 5 85 85 85
-7 -1 6 85 85 85
-6 -1 6 85 85 85
-5 -1 6 85 85 85
-4 -1 6 85 85 85
-3 -1 6 85 85 85
-2 -1 6 85 85 85
-1 -1 6 85 85 85
0 -1 6 85 85 85
1 -1 6 85 85 85
2 -1 6 85 85 85
3 -1 6 85 85 85
4 -1 6 85 85 85
5 -1 6 85 85 85
6 -1 6 85 85 85
7 -1 6 85 85 85
-7 0 6 85 85 85
-6 0 6 85 85 85
-5 0 6 85 85 85
-4 0 6 85 85 85
-3 0 6 85 85 85
-2 0 6 85 85 85
-1 0 6 85 85 85
0 0 6 85 85 85
1 0 6 85 85 85
2 0 6 85 85 85
3 0 6 85 85 85
4 0 6 85 85 85
5 0 6 85 85 85
6 0 6 85 85 85
7 0 6 85 85 85
-7 1 6 85 85 85
-6 1 6 85 85 85
-5 1 6 85 85 85
-4 1 6 85 85 85
-3 1 6 85 85 85
-2 1 6 85 85 85
-1 1 6 85 85 85
0 1 6 85 85 85
1 1 6 85 85 85
2 1 6 85 85 85
3 1 6 85 85 85
4 1 6 85 85 85
5 1 6 85 85 85
6 1 6 85 85 85
7 1 6 85 85 85
-7 -1 7 85 85 85
-6 -1 7 85 85 85
-5 -1 7 85 85 85
-4 -1 7 85 85 85
-3 -1 7 85 85 85
-2 -1 7 85 85 85
-1 -1 7 85 85 85
0 -1 7 85 85 85
1 -1 7 85 85 85
2 -1 7 85 85 85
3 -1 7 85 85 85
4 -1 7 85 85 85
5 -1 7 85 85 85
6 -1 7 85 85 85
7 -1 7 85 85 85
-7 0 7 85 85 85
-6 0 7 85 85 85
-5 0 7 85 85 85
-4 0 7 85 85 85
-3 0 7 85 85 85
-2 0 7 85 85 85
-1 0 7 85 85 85
0 0 7 85 85 85
1 0 7 85 85 85
2 0 7 85 85 85
3 0 7 85 85 85
4 0 7 85 85 85
5 0 7 85 85 85
6 0 7 85 85 85
7 0 7 85 85 85
-7 1 7 85 85 85
-6 1 7 85 85 85
-5 1 7 85 85 85
-4 1 7 85 85 85
-3 1 7 85 85 85
-2 1 7 85 85 85
-1 1 7 85 85 85
0 1 7 85 85 85
1 1 7 85 85 85
2 1 7 85 85 85
3 1 7 85 85 85
4 1 7 85 85 85
5 1 7 85 85 85
6 1 7 85 85 85
7 1 7 85 85 85
-7 -1 8 85 85 85
-6 -1 8 85 85 85
-5 -1 8 85 85 85
-4 -1 8 85 85 85
-3 -1 8 85 85 85
-2 -1 8 85 85 85
-1 -1 8 85 85 85
0 -1 8 85 85 85
1 -1 8 85 85 85
2 -1 8 85 85 85
3 -1 8 85 85 85
4 -1 8 85 85 85
5 -1 8 85 85 85
6 -1 8 85 85 85
7 -1 8 85 85 85
-7 0 8 85 85 85
-6 0 8 85 85 85
-5 0 8 85 85 85
-4 0 8 85 85 85
-3 0 8 85 85 85
-2 0 8 85 85 85
-1 0 8 85 85 85
0 0 8 85 85 85
1 0 8 85 85 85
2 0 8 85 85 85
3 0 8 85 85 85
4 0 8 85 85 85
5 0 8 85 85 85
6 0 8 85 85 85
7 0 8 85 85 85
-7 1 8 85 85 85
-6 1 8 85 85 85
-5 1 8 85 85 85
-4 1 8 85 85 85
-3 1 8 85 85 85
-2 1 8 85 85 85
-1 1 8 85 85 85
0 1 8 85 85 85
1 1 8 85 85 85
2 1 8 85 85 85
3 1 8 85 85 85
4 1 8 85 85 85
5 1 8 85 85 85
6 1 8 85 85 85
7 1 8 85 85 85
-7 -1 9 85 85 85
-6 -1 9 85 85 85
-5 -1 9 85 85 85
-4 -1 9 85 85 85
-3 -1 9 85 85 85
-2 -1 9 85 85 85
-1 -1 9 85 85 85
0 -1 9 85 85 85
1 -1 9 85 85 85
2 -1 9 85 85 85
3 -1 9 85 85 85
4 -1 9 85 85 85
5 -1 9 85 85 85
6 -1 9 85 85 85
7 -1 9 85 85 85
-7 0 9 85 85 85
-6 0 9 85 85 85
-5 0 9 85 85 85
-4 0 9 85 85 85
-3 0 9 85 85 85
-2 0 9 85 85 85
-1 0 9 85 85 85
0 0 9 85 85 85
1 0 9 85 85 85
2 0 9 85 85 85
3 0 9 85 85 85
4 0 9 85 85 85
5 0 9 85 85 85
6 0 9 85 85 85
7 0 9 85 85 85
-7 1 9 85 85 85
-6 1 9 85 85 85
-5 1 9 85 85 85
-4 1 9 85 85 85
-3 1 9 85 85 85
-2 1 9 85 85 85
-1 1 9 85 85 85
0 1 9 85 85 85
1 1 9 85 85 85
2 1 9 85 85 85
3 1 9 85 85 85
4 1 9 85 85 85
5 1 9 85 85 85
6 1 9 85 85 85
7 1 9 85 85 85
-7 -1 10 85 85 85
-6 -1 10 85 85 85
-5 -1 10 85 85 85
-4 -1 10 85 85 85
-3 -1 10 85 85 85
-2 -1 10 85 85 85
-1 -1 10 85 85 85
0 -1 10 85 85 85
1 -1 10 85 85 85
2 -1 10 85 85 85
3 -1 10 85 85 85
4 -1 10 85 85 85
5 -1 10 85 85 85
6 -1 10 85 85 85
7 -1 10 85 85 85
-7 0 10 85 85 85
-6 0 10 85 85 85
-5 0 10 85 85 85
-4 0 10 85 85 85
-3 0 10 85 85 85
-2 0 10 85 85 85
-1 0 10 85 85 85
0 0 10 85 85 85
1 0 10 85 85 85
2 0 10 85 85 85
3 0 10 85 85 85
4 0 10 85 85 85
5 0 10 85 85 85
6 0 10 85 85 85
7 0 10 85 85 85
-7 1 10 85 85 85
-6 1 10 85 85 85
-5 1 10 85 85 85
-4 1 10 85 85 85
-3 1 10 85 85 85
-2 1 10 85 85 85
-1 1 10 85 85 85
0 1 10 85 85 85
1 1 10 85 85 85
2 1 10 85 85 85
3 1 10 85 85 85
4 1 10 85 85 85
5 1 10 85 85 85
6 1 10 85 85 85
7 1 10 85 85 85
-7 -1 11 85 85 85
-6 -1 11 85 85 85
-5 -1 11 85 85 85
-4 -1 11 85 85 85
-3 -1 11 85 85 85
-2 -1 11 85 85 85
-1 -1 11 85 85 85
0 -1 11 85 85 85
1 -1 11 85 85 85
2 -1 11 85 85 85
3 -1 11 85 85 85
4 -1 11 85 85 85
5 -1 11 85 85 85
6 -1 11 85 85 85
7 -1 11 85 85 85
-7 0 11 85 85 85
-6 0 11 85 85 85
-5 0 11 85 85 85
-4 0 11 85 85 85
-3 0 11 85 85 85
-2 0 11 85 85 85
-1 0 11 85 85 85
0 0 11 85 85 85
1 0 11 85 85 85
2 0 11 85 85 85
3 0 11 85 85 85
4 0 11 85 85 85
5 0 11 85 85 85
6 0 11 85 85 85
7 0 11 85 85 85
-7 1 11 85 85 85
-6 1 11 85 85 85
-5 1 11 85 85 85
-4 1 11 85 85 85
-3 1 11 85 85 85
-2 1 11 85 85 85
-1 1 11 85 85 85
0 1 11 85 85 85
1 1 11 85 85 85
2 1 11 85 85 85
3 1 11 85 85 85
4 1 11 85 85 85
5 1 11 85 85 85
6 1 11 85 85 85
7 1 11 85 85 85
-7 -1 12 85 85 85
-6 -1 12 85 85 85
-5 -1 12 85 85 85
-4 -1 12 85 85 85
-3 -1 12 85 85 85
-2 -1 12 85 85 85
-1 -1 12 85 85 85
0 -1 12 85 85 85
1 -1 12 85 85 85
2 -1 12 85 85 85
3 -1 12 85 85 85
4 -1 12 85 85 85
5 -1 12 85 85 85
6 -1 12 85 85 85
7 -1 12 85 85 85
-7 0 12 85 85 85
-6 0 12 85 85 85
-5 0 12 85 85 85
-4 0 12 85 85 85
-3 0 12 85 85 85
-2 0 12 85 85 85
-1 0 12 85 85 85
0 0 12 85 85 85
1 0 12 85 85 85
2 0 12 85 85 85
3 0 12 85 85 85
4 0 12 85 85 85
5 0 12 85 85 85
6 0 12 85 85 85
7 0 12 85 85 85
-7 1 12 85 85 85
-6 1 12 85 85 85
-5 1 12 85 85 85
-4 1 12 85 85 85
-3 1 12 85 85 85
-2 1 12 85 85 85
-1 1 12 85 85 85
0 1 12 85 85 85
1 1 12 85 85 85
2 1 12 85 85 85
3 1 12 85 85 85
4 1 12 85 85 85
5 1 12 85 85 85
6 1 12 85 85 85
7 1 12 85 85 85
-7 -1 13 85 85 85
-6 -1 13 85 85 85
-5 -1 13 85 85 85
-4 -1 13 85 85 85
-3 -1 13 85 85 85
-2 -1 13 85 85 85
-1 -1 13 85 85 85
0 -1 13 85 85 85
1 -1 13 85 85 85
2 -1 13 85 85 85
3 -1 13 85 85 85
4 -1 13 85 85 85
5 -1 13 85 85 85
6 -1 13 85 85 85
7 -1 13 85 85 85
-7 0 13 85 85 85
-6 0 13 85 85 85
-5 0 13 85 85 85
-4 0 13 85 85 85
-3 0 13 85 85 85
-2 0 13 85 85 85
-1 0 13 85 85 85
0 0 13 85 85 85
1 0 13 85 85 85
2 0 13 85 85 85
3 0 13 85 85 85
4 0 13 85 85 85
5 0 13 85 85 85
6 0 13 85 85 85
7 0 13 85 85 85
-7 1 13 85 85 85
-6 1 13 85 85 85
-5 1 13 85 85 85
-4 1 13 85 85 85
-3 1 13 85 85 85
-2 1 13 85 85 85
-1 1 13 85 85 85
0 1 13 85 85 85
1 1 13 85 85 85
2 1 13 85 85 85
3 1 13 85 85 85
4 1 13 85 85 85
5 1 13 85 85 85
6 1 13 85 85 85
7 1 13 85 85 85
-7 0 14 85 85 85
-6 0 14 85 85 85
-5 0 14 85 85 85
-4 0 14 85 85 85
-3 0 14 85 85 85
-2 0 14 85 85 85
-1 0 14 85 85 85
0 0 14 85 85 85
1 0 14 85 85 85
2 0 14 85 85 85
3 0 14 85 85 85
4 0 14 85 85 85
5 0 14 85 85 85
6 0 14 85 85 85
7 0 14 85 85 85
